-5.37829 -16.0732 -14.326 
-5.23761 -18.467 -15.1337 
-21.9626 4.21084 -7.50201 
-16.3488 -1.86892 -6.35813 
-7.01963 -18.7275 -13.43 
6.41921 -20.8677 4.27238 
-13.2723 14.2823 -7.76593 
-6.98617 3.95492 -12.8792 
-10.4244 -14.6197 -3.01914 
2.70262 -18.0443 -17.8352 
-16.8304 3.79847 -13.3294 
-16.9689 16.2693 -3.11853 
-5.48866 -20.8215 -13.9538 
-17.6408 -6.2079 6.86376 
-8.12215 22.3893 1.97996 
13.4071 23.3632 -4.1064 
-3.73859 -16.2391 -16.0313 
6.4607 -17.1583 -18.1128 
-1.51367 1.20049 -6.44506 
-19.0859 -0.0751811 8.01067 
-9.50786 -23.6585 -1.8767 
5.20551 -9.52025 13.7571 
-13.5124 17.1553 0.628106 
15.6978 -6.10099 -3.9848 
4.09448 -8.51562 -15.8736 
14.9419 -22.8545 -4.98224 
-19.9574 5.48504 -12.1796 
-16.5544 9.54328 5.86672 
-0.727191 -27.6472 -7.8747 
-8.52596 8.31341 16.5993 
11.7789 10.8609 -5.31201 
17.0061 4.60644 -0.444648 
-9.96116 -20.5562 -7.52045 
0.597258 -26.9133 -10.1162 
-21.2976 7.26455 -11.6097 
-17.669 -4.52285 2.10935 
-8.76388 -24.0597 -4.21367 
3.81085 -14.5102 7.76903 
-10.68 20.1536 -3.60242 
2.63517 20.9181 -5.81437 
14.9562 3.70652 -4.61741 
8.73486 -25.311 -11.3916 
-2.24781 4.90601 -10.5131 
-19.1976 0.763291 -1.73082 
-7.05308 -22.0446 4.07542 
-11.056 -9.67716 8.02412 
-9.21636 18.2565 -4.63087 
9.75399 10.0098 -5.34467 
-1.81803 -11.7662 -15.5391 
17.3288 -12.8081 -11.5564 
-16.618 2.07708 -11.156 
-15.7374 -2.49422 14.3186 
-12.01 -11.2095 0.602125 
2.102 -3.74148 16.1106 
-6.85075 23.0714 7.56326 
17.4379 6.94991 -1.11389 
10.0774 -10.7182 -17.2977 
14.4155 -0.184899 2.96103 
-19.8993 8.14516 -13.8869 
-10.279 18.1458 12.9189 
1.86015 -28.7667 0.678144 
-7.58223 15.418 14.8635 
1.56582 7.08716 -8.56227 
1.37032 17.7942 12.4581 
-1.92388 -10.2253 -11.3347 
-1.30667 -23.2071 -14.3553 
-18.1965 -1.79134 -5.14765 
-14.9804 -5.5116 -2.85466 
-8.88093 -20.9203 -9.79871 
11.0674 -18.3293 3.01938 
-13.1619 19.3845 -3.56255 
1.07041 11.7792 -6.78315 
-1.07743 -1.27308 -5.87866 
11.9701 -19.5417 -15.3626 
-18.266 16.0515 -7.97672 
-18.2766 7.11644 2.03087 
-7.55222 -24.4531 -6.5481 
-15.7013 -7.64336 6.56836 
6.2524 25.4405 -1.26797 
3.91778 27.4533 -1.71708 
3.83211 -12.4403 -18.0498 
13.9382 -13.409 -16.205 
-7.85896 -1.34885 -7.72811 
-18.8077 2.3756 11.952 
-5.95867 -9.95507 8.53419 
10.1679 -1.61418 17.439 
-10.4295 21.4301 6.23859 
15.6145 -4.65897 -6.03294 
5.03446 -2.15073 -11.6566 
14.1654 -14.2493 3.88962 
-16.3895 5.6756 -15.0792 
-13.5398 16.7908 7.04441 
-3.45162 -19.8457 5.91022 
-5.18959 2.45393 16.3141 
16.2923 20.8571 -1.97301 
14.017 3.12222 11.6499 
-11.2148 -16.5704 1.42591 
3.96247 -26.7111 -10.8719 
-20.0915 2.58289 -2.82373 
-18.9777 -4.16123 6.61316 
-3.53947 -28.0715 -2.67035 
12.8449 -9.13607 9.15353 
-6.19427 22.4687 -3.35168 
10.4751 24.0633 -2.37406 
5.93661 6.56544 -4.70104 
10.4197 -25.7919 -1.88969 
-6.20619 12.2648 -7.34825 
-17.7876 6.54207 12.5823 
-2.53966 -17.4492 5.63235 
-6.86703 -0.0726 15.6523 
0.0341842 26.1227 -4.99749 
15.5247 10.0898 5.03897 
0.0147839 -8.22126 -13.8146 
15.9746 -6.47913 -7.54926 
-9.32168 3.4044 -13.6766 
-14.0754 3.25685 16.5853 
-4.85695 -8.59477 10.6637 
3.91925 0.545479 17.6016 
-5.13507 25.1922 1.22375 
17.7137 16.0705 -4.45455 
10.6986 -6.29047 -13.8827 
15.5273 -5.43735 4.83956 
-22.3967 9.05248 -10.5086 
1.79324 21.8025 8.58598 
3.48616 -28.9267 -1.87193 
-1.03185 8.49758 16.3433 
0.526466 21.6733 -5.06408 
6.49022 20.2921 9.46086 
-7.44119 -16.6161 -9.80474 
-0.754327 -18.621 -17.1265 
-20.3021 3.50516 -9.92878 
-12.7665 -5.21196 -3.84531 
-7.44494 -20.91 -11.9577 
14.1047 -19.6562 -0.561576 
-13.0401 16.1813 -6.40811 
-3.70712 2.7177 -9.76025 
-8.35732 -13.2636 -5.61929 
8.0189 -22.2276 -15.4236 
-13.4575 6.15582 -15.1106 
-18.777 8.53975 0.214409 
-3.50967 -22.897 -13.4914 
-11.6486 -7.14605 11.5246 
-4.08457 27.9444 -2.81524 
4.42235 25.7376 0.245373 
0.951641 -16.521 -17.7839 
10.3383 -15.6331 -17.8494 
-6.13868 2.15379 -10.8369 
-18.981 -0.0603482 12.8474 
-9.92587 -17.6022 3.6711 
10.8917 -5.01691 15.2603 
-16.5183 12.5658 1.31504 
15.1687 -2.401 1.52081 
1.79161 -3.95919 -12.4609 
16.5503 -16.7774 -1.40069 
-22.4753 6.27844 -6.40127 
-17.1233 8.56548 14.2378 
-0.639866 -28.8233 0.714198 
-7.26666 12.7115 15.7642 
15.8565 17.7269 -8.0835 
15.1729 7.05263 4.48376 
-10.5271 -16.9913 -3.60611 
4.93607 -28.565 -4.4037 
-22.6141 11.4358 -6.9973 
-18.6212 -0.834701 -0.208402 
-7.28927 -25.94 0.597596 
7.04248 -12.9151 11.3227 
-9.32828 21.4309 3.73747 
6.26188 19.4939 -7.41797 
5.30154 10.0987 -7.24042 
14.3661 -20.8284 -11.6282 
-1.68163 9.25004 -8.18287 
-18.5933 2.80883 9.32777 
-6.3034 -15.8182 5.19049 
-2.07795 -5.88214 13.6421 
-3.6368 18.6008 -4.68397 
17.2712 16.4039 -0.119976 
-0.0397681 -10.2698 -16.0185 
18.091 -16.6544 -8.17859 
-10.4547 0.981497 -10.9369 
-10.4719 -3.18896 14.2926 
-7.16011 -11.3603 6.16803 
4.08385 -5.30315 16.2128 
-2.82494 21.745 9.62438 
17.5585 11.1368 0.99968 
10.5482 -8.63269 -15.7943 
13.5612 1.32203 7.1629 
-19.4651 12.7606 -11.7655 
-2.8993 19.9461 11.3991 
4.10063 -24.6462 2.86361 
-1.04404 16.8335 13.3937 
2.05713 14.3212 -6.28376 
4.59484 14.1747 14.5297 
-2.38902 -8.7063 -9.43149 
3.42071 -23.0158 -15.5706 
-19.3683 0.183931 -6.78676 
-16.8396 -5.42646 -1.19534 
-10.9203 -19.2082 -2.82532 
8.1093 -16.8048 6.67945 
-12.3521 18.3528 2.3944 
-2.48569 21.1547 -4.34682 
12.2156 3.19453 -6.1436 
15.8449 -13.2316 -14.0819 
-6.25123 8.24646 -10.3372 
-17.2866 7.16058 6.51974 
-4.54949 -24.4276 -10.8791 
-9.18318 -6.79332 11.9266 
10.2114 22.137 -8.62538 
9.00169 20.3396 9.03101 
9.14426 -12.8775 -18.1276 
16.2543 -8.75111 -11.7124 
7.42665 2.5591 -5.56123 
-13.0986 7.56967 17.0193 
-2.30302 -11.1443 7.53658 
8.39387 5.30492 17.9511 
-11.0702 20.375 8.63494 
15.4393 -0.520137 -5.96265 
8.31578 -2.96057 -11.8006 
16.1888 -9.90658 2.62215 
-16.293 10.1887 -12.6882 
-14.0325 15.7475 9.38505 
-2.39291 -23.7848 4.82061 
-0.401171 3.45978 16.712 
10.6299 23.29 2.54807 
14.1376 5.42462 11.7552 
-13.2533 -8.87718 0.197494 
11.2209 -25.8553 -6.82363 
-20.5644 9.44296 -3.21023 
-17.5331 -6.95347 9.22668 
-3.04266 -28.335 0.00926021 
12.7696 -6.42869 10.3821 
-0.878685 29.2567 -2.82684 
4.93404 21.505 -6.78184 
11.4739 5.49724 -5.11822 
15.9904 -18.8657 -11.2416 
-3.58454 12.6986 -6.67801 
-13.8238 12.463 15.9764 
4.57562 -18.9554 5.83824 
-0.120502 -7.15109 13.297 
13.502 17.093 -9.48486 
14.7765 17.0254 8.65965 
0.24213 -5.37125 -11.65 
17.1102 -13.5997 -1.9509 
-10.5234 8.07451 -12.1722 
-8.8765 1.23175 16.008 
1.63069 -10.6665 10.4239 
5.70684 9.56399 16.5741 
-2.6158 24.1909 4.88965 
16.5125 16.0511 2.20678 
12.1283 -2.82923 -10.913 
14.0444 0.57851 9.47153 
-17.212 17.0984 -5.5782 
4.23412 21.9138 7.84819 
9.6311 -23.2361 0.483534 
1.40292 7.31036 16.6732 
5.94155 16.8317 -7.11215 
14.4332 10.5306 8.73095 
-2.34374 -13.759 -16.2445 
-3.37873 -20.9747 -15.2109 
-20.8151 1.77837 -5.24162 
-12.3375 -1.65994 -7.48541 
-4.85045 -14.5975 -12.1962 
9.61539 -17.701 4.80077 
-8.61866 11.8132 -8.21208 
-6.30703 6.17655 -12.0845 
-9.73546 -9.94004 -3.31084 
5.78344 -21.6506 -16.4595 
-14.4979 2.56289 -12.7407 
-17.7295 12.3301 -0.751499 
-7.21024 -22.9056 -9.95328 
-14.3453 -7.33784 11.0617 
-6.71846 25.0214 -2.57113 
12.7196 23.7868 -1.86183 
-0.117874 -14.0291 -17.3963 
9.62329 -20.0385 -16.4245 
-3.35401 -1.23351 -6.47993 
-18.588 -4.47641 11.401 
-7.99224 -23.7875 2.72113 
8.70275 -9.24926 14.3878 
-15.0966 14.8776 0.827454 
15.7194 -4.52269 -0.183954 
6.4582 -8.277 -15.7606 
16.5203 -20.5993 -4.52335 
-18.4765 5.99885 -14.255 
-15.2103 13.1241 9.44694 
3.51724 -28.3594 -6.59895 
-5.66229 7.69956 16.4587 
15.9829 13.2349 -5.96763 
15.6629 4.66507 2.57637 
-9.92211 -17.8639 -6.17254 
4.99119 -27.5478 -8.79304 
-23.0754 9.01639 -7.34016 
-18.8075 -2.82768 4.21347 
-5.82801 -26.9161 -2.49025 
8.56438 -14.2437 9.95294 
-8.89622 22.6496 -2.64451 
13.5784 13.517 -7.5242 
15.7899 1.26665 -4.06082 
12.4853 -24.4382 -8.54749 
0.277234 5.25132 -9.23399 
-18.5974 4.66497 2.02416 
-6.09294 -20.1676 5.3713 
-7.6354 -8.8249 10.0159 
-3.81446 23.0949 -3.77204 
17.1762 11.2767 -3.69764 
-0.732686 -7.84169 -11.6393 
18.7576 -14.3235 -7.3053 
-15.666 0.529557 -9.63453 
-13.0637 1.013 15.9856 
-12.0438 -9.90724 5.54953 
1.92821 -0.772256 16.8238 
-4.91691 23.5111 5.99906 
17.5843 8.58692 0.795818 
12.8283 -9.22521 -15.5308 
13.8162 2.10364 4.78475 
-21.5487 11.9494 -11.5488 
-5.48852 19.0059 12.492 
4.31619 -28.1754 0.190988 
-3.26817 15.6341 14.312 
2.85084 9.67633 -7.40809 
5.57441 16.7059 12.9309 
-5.38631 -12.7635 -8.81674 
2.10898 -26.0158 -12.0079 
-15.4065 -3.69465 -4.55187 
-10.9095 -12.1396 -1.58766 
-9.84176 -22.2984 -5.36557 
12.944 -14.1965 5.95247 
-10.5013 20.323 2.06024 
0.399056 16.3449 -5.70775 
-1.9256 -3.8226 -6.8208 
14.2047 -19.1527 -13.5268 
-21.9722 13.4332 -9.64266 
-18.1791 4.1782 5.28953 
-5.4177 -26.0589 -6.80942 
-12.6622 -8.7631 9.68358 
6.35719 24.5016 1.45299 
3.62653 24.8623 2.40808 
5.68149 -14.0993 -18.3423 
16.2449 -11.0285 -12.9993 
-7.22261 -5.92767 -5.25781 
-16.9194 4.12876 16.0464 
-1.17057 -9.77653 10.1445 
10.3525 1.24637 17.8255 
-9.42692 20.4708 10.562 
15.6941 -4.17533 -2.58626 
7.02181 -1.05387 -10.7347 
14.0292 -12.0654 6.32524 
-17.8132 8.65611 -14.6596 
-12.9808 17.0055 11.5617 
-0.764358 -19.3342 5.93285 
-3.18956 6.88872 16.4655 
15.2194 20.8951 0.480765 
13.092 1.78478 14.1724 
-10.7437 -14.9535 3.22701 
7.6012 -26.9328 -8.77272 
-20.3859 4.88066 -2.57779 
-19.4366 -2.6605 8.51029 
-0.0505071 -28.7295 -4.32501 
13.7683 -6.93048 8.16609 
-2.25695 25.3831 -4.24646 
2.70194 26.9025 -5.79498 
4.33318 -0.377683 -6.65566 
13.2392 -21.9418 -1.20798 
-7.63724 16.0574 -5.50825 
-15.776 7.99264 16.6005 
1.39924 -14.7054 6.58814 
-2.17656 -0.844319 15.8703 
1.91179 28.8642 -2.37329 
15.0741 11.8955 6.95322 
-2.56594 -6.02709 -7.62928 
17.1242 -9.92433 -4.8383 
-10.8682 5.63013 -14.5277 
-9.62915 4.29484 16.6398 
0.53776 -8.94356 11.9465 
6.10731 1.6334 18.1834 
-3.46542 26.7184 0.569162 
17.8835 12.6488 -1.43445 
14.7028 -4.2667 -10.8547 
14.4179 -1.48554 7.34475 
-17.1178 12.0796 -11.2613 
3.56373 18.4721 11.6751 
6.8972 -27.0855 -0.311154 
3.13325 11.1631 15.8152 
4.10841 18.7985 -6.42904 
10.2528 17.1675 12.1895 
-7.17385 -14.2323 -7.66357 
1.04769 -22.2421 -15.8993 
-20.6014 2.15742 -7.81255 
-9.92195 -5.7183 -4.46492 
-9.27586 -18.5122 -8.73806 
13.2883 -17.0638 1.94465 
-10.1352 16.0684 -5.84739 
4.01682 5.09393 -4.75564 
-6.20811 -8.5815 -5.79003 
10.0667 -23.5056 -13.0177 
-14.3274 9.01123 -12.9127 
-17.2419 8.82246 3.62256 
-2.44491 -24.7291 -12.0812 
-12.571 -1.7407 14.927 
12.3777 19.0657 -9.71952 
7.42563 22.7535 5.61968 
4.20393 -16.0903 -18.2196 
13.6386 -17.4981 -15.3101 
-6.51082 -3.35208 -6.1599 
-17.4386 -0.315272 14.7104 
-9.90577 -12.8526 4.42113 
9.12921 -6.91774 15.7792 
-15.4404 12.5415 5.53132 
15.7716 0.0363673 0.78804 
8.31597 -5.45173 -13.5275 
16.4042 -11.7385 0.0750736 
-21.3234 6.52951 -4.0916 
-15.588 12.0872 14.3641 
1.51612 -25.3012 3.53454 
-2.95502 13.0733 15.3128 
17.5962 17.9298 -3.03304 
13.9791 6.41828 6.71255 
-11.2911 -14.4766 -0.649395 
8.85694 -27.0851 -6.59249 
-18.9398 15.6817 -5.39232 
-18.7584 0.917672 5.0751 
-4.49396 -27.3622 2.16089 
10.3371 -10.0012 12.7493 
-6.45398 22.8172 3.80719 
8.21489 16.6919 -8.06882 
11.1235 8.04295 -4.41018 
13.7518 -22.6943 -9.8569 
-1.35476 11.5752 -6.95642 
-17.5651 6.53617 9.42397 
-1.19546 -15.1133 5.67495 
-4.18043 -4.52582 14.0774 
7.60015 25.4555 -6.71359 
14.3565 20.6651 2.62776 
3.55928 -6.54727 -14.4969 
18.4162 -16.5501 -5.62118 
-12.6511 -0.0884705 -9.4705 
-4.90067 -2.14691 15.0798 
-5.20557 -13.1954 5.35355 
7.93434 -2.79713 17.8862 
-0.309792 23.8903 5.91131 
15.899 15.6855 4.52372 
14.7284 -6.64737 -12.5426 
13.4949 3.9193 6.81849 
-20.3611 15.4122 -7.90905 
-0.492659 20.9348 10.0521 
7.06592 -24.2192 1.49197 
0.320432 12.3151 15.4027 
7.88938 10.4309 -7.01817 
7.6487 12.6071 15.3976 
0.51149 -2.62501 -7.06215 
5.49151 -25.39 -12.7558 
-18.1001 -3.75202 -0.40329 
-16.3002 -6.14765 1.37569 
-10.4369 -21.7891 -0.344661 
11.7001 -13.9644 8.02828 
-13.0649 17.7507 4.7529 
4.99771 25.7054 -6.67869 
13.6015 0.0101056 -7.88578 
17.2175 -16.7995 -10.6514 
-3.89513 8.48445 -9.34036 
-16.1904 10.6768 9.99071 
-2.90939 -27.2363 -7.1565 
-6.26051 -5.41136 13.2482 
10.8448 23.3992 -5.11955 
11.6486 20.2866 8.26373 
6.93623 -11.9856 -18.0885 
17.5261 -9.88221 -7.3831 
8.76044 1.6244 -7.38387 
-11.0397 9.37364 16.7689 
2.17045 -12.6156 8.05575 
12.5341 7.94358 15.9212 
-7.21504 21.6435 9.9418 
16.5328 0.826168 -1.31868 
8.90779 0.407212 -9.4163 
16.0957 -7.61726 3.63397 
-13.0807 12.1358 -9.35029 
-12.0079 14.4074 15.4089 
1.21448 -21.3722 5.64941 
3.99398 3.28952 17.6176 
10.1853 22.4709 4.92361 
14.1275 7.80969 11.5322 
-14.5729 -7.72255 2.25158 
12.071 -25.4648 -4.00073 
-19.503 12.0249 -3.04366 
-16.2702 -4.42902 13.0101 
-3.66104 -25.9014 3.86369 
12.266 -3.34182 13.3721 
-2.15361 28.2275 -4.18679 
14.6339 19.7312 -8.29846 
13.6445 5.696 -4.97258 
16.1982 -21.0026 -6.89722 
-1.82464 16.9809 -5.29245 
-9.52226 13.8253 15.676 
5.27513 -16.6839 7.07719 
4.43648 -7.30504 15.1883 
10.642 17.4051 -9.554 
14.4293 12.6478 10.7448 
2.88354 -2.11184 -11.0841 
16.2706 -9.03938 0.324559 
-10.8544 10.0919 -10.3592 
-5.46037 5.11581 16.5444 
5.07888 -11.5057 11.7902 
8.37666 7.82766 17.323 
1.32122 25.764 1.92753 
15.0371 17.6899 6.08803 
13.8413 -2.00501 -9.53942 
12.596 -0.745844 14.0868 
-13.2827 19.1847 -1.32772 
12.7141 16.5825 11.7884 
10.0256 -20.5099 1.98442 
3.92902 6.09002 17.2492 
9.85816 14.8555 -8.1984 
10.0123 11.9247 15.6316 
-3.83426 -13.9067 -14.4502 
-3.03767 -18.8055 -16.3117 
-21.5139 3.98416 -5.04611 
-13.7355 -2.88718 -5.83759 
-6.68292 -16.6676 -12.3066 
8.53855 -19.8019 3.85434 
-10.8604 14.1727 -7.16272 
-4.69585 4.15558 -11.6563 
-9.60303 -12.3967 -3.78579 
4.98865 -19.0903 -17.7167 
-11.8702 3.63848 -14.4124 
-15.0492 16.7515 -1.11404 
-5.61694 -22.6605 -12.063 
-15.5023 -8.1873 9.08813 
-6.9466 24.0148 0.902607 
15.5723 22.2909 -3.8529 
-1.55138 -16.2346 -17.0917 
8.83313 -17.8219 -17.7304 
0.608882 1.13134 -5.04748 
-19.1671 0.318026 10.2384 
-9.04063 -24.073 0.607567 
6.70939 -8.1247 15.3209 
-13.943 16.077 2.91116 
15.9672 -6.82804 -1.20825 
6.03336 -6.29767 -14.303 
15.1212 -21.6241 -2.7466 
-21.693 5.43748 -9.77962 
-15.8497 11.2957 7.53058 
0.95152 -28.3406 -6.60517 
-6.59265 9.95457 16.2716 
13.983 11.7563 -5.73414 
16.8481 6.22967 1.6014 
-10.6468 -19.8623 -5.2175 
2.37278 -27.6746 -8.83914 
-22.8384 7.22672 -8.74217 
-17.5424 -5.13737 4.48184 
-7.8281 -25.4902 -1.80086 
5.43628 -13.7347 9.51654 
-7.8216 20.3093 -3.78264 
5.40544 27.3008 -5.68605 
16.4099 5.35588 -3.11914 
11.0558 -24.4893 -10.5803 
-1.31513 7.13345 -9.459 
-18.7808 1.54083 0.991267 
-4.22679 -22.0641 5.26554 
-8.49892 -10.0243 7.91799 
-5.12705 20.3825 -4.03287 
15.3875 10.245 -4.55447 
-1.28475 -10.257 -13.6837 
18.2202 -12.1186 -8.84169 
-13.6061 1.22138 -11.0715 
-14.8419 -0.509249 15.3555 
-11.6763 -11.4518 3.4604 
3.89009 -2.35432 17.1609 
-4.87049 22.6942 8.72664 
17.8088 10.0653 -1.32276 
12.3679 -11.324 -16.7973 
14.8294 2.23709 2.59238 
-20.9898 9.87163 -12.7319 
-7.86227 17.7069 13.5938 
2.92634 -26.8535 2.06168 
-5.46264 16.8431 13.9388 
1.90999 4.55399 -7.18939 
3.32335 16.1662 13.3815 
-3.60189 -10.9026 -9.42696 
0.969244 -24.1189 -14.2102 
-17.4353 -3.8089 -3.27303 
-12.9281 -7.23684 -2.09817 
-8.62822 -22.7647 -7.69447 
12.3126 -16.1135 3.93417 
-11.0271 21.2911 -1.85151 
3.51815 12.3103 -6.80248 
4.76928 2.90257 -4.31197 
12.449 -21.1394 -13.5745 
-15.7076 15.9123 -7.3953 
-17.7737 6.30424 4.37579 
-6.91075 -25.771 -4.4347 
-13.7279 -9.10258 7.51166 
8.63627 24.1847 0.925497 
2.14869 27.0058 0.0757989 
2.7373 -10.4376 -17.1094 
14.5786 -11.2079 -15.1912 
-5.47011 0.664774 -8.82836 
-18.3312 4.36869 13.7794 
-3.44973 -9.84716 9.24989 
11.8362 0.151683 16.2277 
-9.09652 22.0429 8.23561 
15.5969 -2.80506 -4.72584 
4.51016 -0.748989 -9.50966 
15.3523 -11.9833 4.362 
-14.3184 4.1094 -14.6704 
-12.7323 18.112 9.09761 
-1.45083 -21.6916 5.78737 
-2.47273 1.93193 16.3848 
14.5667 22.6794 -1.23851 
13.523 4.23127 14.1275 
-10.3996 -19.1473 1.8567 
6.63749 -26.2904 -10.8982 
-19.2971 3.38499 -0.317701 
-19.0522 -5.11365 9.18679 
-1.38078 -28.7742 -2.01274 
11.8119 -8.28709 11.5179 
-4.65286 25.7068 -3.48178 
8.37225 24.5847 -1.44083 
8.58117 8.03023 -4.4528 
11.5811 -23.996 -1.22481 
-5.73986 14.3416 -6.11715 
-17.3964 6.37482 15.4309 
0.265685 -17.1172 5.9936 
-4.46186 0.160267 15.8653 
3.0661 28.6895 -4.64021 
15.8855 13.022 5.08373 
1.35368 -6.19582 -13.799 
16.2254 -7.86732 -5.68264 
-8.44467 1.94496 -11.7858 
-12.2875 4.9502 16.8572 
-4.07976 -6.89443 12.4307 
5.91141 -1.10891 18.0026 
-2.33403 25.3201 2.60282 
17.8278 15.1956 -1.97424 
12.8328 -4.92414 -12.3877 
15.0244 -3.75294 6.3711 
-22.8623 10.9541 -9.29763 
4.07333 20.3271 9.78903 
6.00435 -28.3597 -2.11528 
1.03488 9.92905 16.123 
3.00586 16.7505 -6.18784 
8.3098 18.6763 11.0215 
-5.91457 -14.8702 -10.0442 
1.15148 -19.9265 -17.1521 
-18.5616 1.67478 -9.52923 
-10.8078 -7.4223 -3.19687 
-8.38952 -18.7032 -11.1692 
14.8806 -17.3702 0.0828688 
-11.817 17.8048 -5.09033 
-1.34604 3.38187 -8.79311 
-7.86596 -10.5098 -5.09165 
10.2411 -21.8134 -14.6974 
-12.2822 7.70045 -13.3767 
-17.5631 10.301 1.46242 
-0.239789 -25.3256 -12.4061 
-11.3295 -5.20606 13.0485 
0.0320674 28.1664 -0.575447 
5.51116 23.8331 3.77652 
2.42497 -14.3668 -18.0495 
12.865 -15.6104 -16.7381 
-3.25069 1.29583 -7.83222 
-18.2373 2.08692 14.6085 
-7.8213 -18.3565 5.06075 
11.3902 -2.63823 15.7531 
-15.2755 13.7288 3.17174 
14.4418 -2.66983 3.99717 
6.36698 -4.03803 -12.7969 
16.0911 -14.537 -0.119562 
-22.0209 8.72061 -5.16157 
-15.8659 10.2017 15.852 
0.372167 -27.6026 2.60961 
-4.84061 11.6268 15.8421 
17.0808 20.026 -4.27008 
14.5733 8.80127 6.64228 
-11.1395 -16.9004 -0.96479 
7.52468 -27.9045 -4.45235 
-21.571 13.5764 -7.05248 
-18.7274 -0.0849985 2.933 
-6.31177 -25.7272 2.77206 
9.22032 -12.0414 12.0441 
-8.0446 22.4894 5.60992 
8.30827 18.9422 -8.64087 
4.77962 7.60179 -7.47756 
15.6037 -20.8144 -9.3534 
0.559764 9.2771 -7.734 
-18.206 4.68405 10.9026 
-3.77779 -15.3372 5.2631 
-0.284836 -4.5883 14.9288 
-0.924679 19.4223 -4.95512 
16.0848 18.6176 1.39495 
1.67373 -8.6095 -15.4786 
18.618 -14.1257 -4.75954 
-7.81185 0.383503 -9.64599 
-8.68534 -1.69478 15.0063 
-4.74024 -11.1288 6.75423 
5.84844 -3.98968 17.3201 
-0.545365 22.6319 8.09397 
16.7407 13.4504 2.91132 
12.803 -7.15324 -14.1204 
13.5232 3.17274 9.1761 
-17.3815 14.0546 -9.6566 
-0.598236 19.0008 11.8237 
5.69512 -22.9034 3.26639 
1.07768 15.4638 13.9538 
6.02672 12.5661 -7.05718 
6.87977 14.7689 14.2085 
-1.13727 -6.54962 -9.64562 
5.78379 -23.6369 -14.7826 
-18.7632 -2.17683 -2.48285 
-14.913 -7.09009 -0.543227 
-10.8974 -19.4255 -0.36051 
9.65857 -15.2895 7.99221 
-11.615 19.9759 4.54415 
1.56844 24.2545 -5.38033 
15.1682 7.26038 -4.17049 
16.7706 -15.0481 -12.4593 
-6.33001 10.187 -8.78785 
-16.7846 8.77644 8.4329 
-3.81863 -25.9787 -9.07012 
-8.70146 -4.81075 13.4345 
7.32569 25.6128 -3.87025 
10.8195 18.9012 10.3504 
11.5364 -13.4615 -17.5944 
16.7839 -8.40399 -8.91767 
9.01248 5.78712 -4.49555 
-10.5783 6.80264 16.8436 
0.101848 -11.2138 8.54793 
10.677 6.63363 17.2909 
-11.3257 18.9071 11.0612 
15.9355 -1.09271 -3.1081 
9.97492 -1.64502 -10.6024 
15.6062 -9.5941 4.98201 
-14.9065 11.482 -10.6641 
-14.4234 14.8573 11.7083 
0.294213 -23.593 4.92892 
1.832 4.77251 17.0325 
12.5104 21.9683 3.45909 
13.8461 6.84199 14.0333 
-12.9835 -9.66507 2.69146 
10.1231 -26.7714 -4.4783 
-20.0806 13.5849 -4.94237 
-16.7217 -6.22459 11.3666 
-2.15217 -27.8822 2.66974 
13.1051 -4.0957 10.7341 
5.41268 27.1653 -3.47127 
12.7445 21.1282 -8.19758 
13.174 8.90732 -4.52537 
17.0147 -18.8527 -8.7222 
-2.80396 14.7713 -5.8174 
-11.3281 11.9831 16.3636 
6.89971 -18.5217 5.55956 
1.73297 -6.04321 14.8385 
14.6473 22.0184 -6.14456 
14.423 15.4752 10.5619 
1.27634 -3.10361 -9.86979 
16.6671 -10.5122 -1.89586 
-8.39007 7.77968 -11.5875 
-7.40483 3.05501 16.3914 
3.14327 -9.96418 12.2795 
7.97255 10.265 16.4605 
-0.0642271 24.8746 3.66222 
15.3734 18.2394 3.5906 
11.564 -0.321251 -9.2178 
13.7222 0.80857 11.8337 
-14.894 17.7027 -5.4137 
6.7903 21.7365 7.53906 
11.3891 -21.5563 0.265347 
3.50828 8.64348 16.6228 
7.45297 14.2755 -7.37032 
14.1996 10.246 11.1484 
-2.74915 -12.2382 -12.8798 
-1.14925 -21.1603 -16.0452 
-19.7195 -0.217685 -4.13546 
-10.0713 -2.23108 -6.95786 
-3.80745 -12.7848 -10.9273 
10.869 -15.8942 5.86597 
-8.3837 13.8959 -6.77186 
-3.93623 6.54378 -10.8321 
-8.34552 -8.01292 -4.44154 
7.34846 -19.9108 -17.2046 
-11.6433 2.09534 -12.5551 
-16.4903 14.4724 -1.08964 
-6.14679 -24.5923 -8.77817 
-13.9524 -5.60847 12.6083 
-5.71542 26.4009 -1.14114 
11.1424 23.9166 0.227518 
0.857511 -12.0068 -17.308 
11.28 -17.775 -16.8874 
2.28201 3.19845 -4.77827 
-18.1859 -2.47849 13.1625 
-8.69466 -20.2458 3.66936 
10.7556 -7.51313 13.8933 
-14.3077 15.1599 5.17559 
15.1538 -4.66089 2.47552 
8.67688 -7.5489 -15.0876 
17.5082 -18.279 -3.61573 
-18.5968 3.64717 -11.766 
-15.5167 12.6387 11.8409 
2.41991 -28.8551 -4.19291 
-3.63306 9.42397 16.2062 
17.2903 18.0928 -6.11869 
16.3989 8.26417 3.06905 
-9.28829 -15.466 -5.31193 
6.19853 -27.9244 -6.6507 
-21.3084 11.2645 -4.90989 
-19.1287 -1.4276 5.92656 
-5.35514 -27.3135 -0.212928 
10.6464 -13.0723 10.1545 
-8.31924 23.952 -1.0872 
16.7904 15.4814 -6.68166 
16.6558 2.99178 -2.40993 
13.2727 -24.5299 -6.00879 
0.143397 3.12019 -6.86546 
-18.5328 2.79875 3.29591 
-5.17623 -17.856 5.60395 
-6.8078 -7.23236 11.7369 
-1.01084 23.3561 -4.50795 
17.5433 13.5327 -4.08833 
-0.237548 -4.51107 -8.83576 
17.6647 -12.0336 -3.65689 
-14.7614 -1.02176 -7.95633 
-11.1814 2.47269 16.3885 
-9.77854 -11.0186 5.88191 
1.80825 2.0604 17.0758 
-2.78615 23.4178 7.36061 
16.6725 10.8582 3.11815 
14.8637 -8.95821 -13.884 
14.3801 4.64682 4.55597 
-18.921 10.673 -13.3939 
-3.15336 17.9879 12.9417 
5.45329 -26.0357 1.29925 
-0.967462 14.3418 14.68 
3.49176 6.10608 -7.58175 
8.13478 16.6136 12.9015 
-5.09832 -10.0859 -7.57093 
3.36971 -24.7892 -13.7622 
-11.5642 -3.83487 -5.30094 
-11.4781 -9.56295 -1.54771 
-10.59 -21.6283 -2.98665 
12.702 -11.789 8.41802 
-9.71196 21.8789 0.113621 
4.69824 14.8636 -6.71361 
3.32031 0.950666 -4.67167 
15.6786 -17.1715 -13.1383 
-20.0415 14.5765 -10.0935 
-17.9633 4.92858 7.71998 
-4.55815 -27.2072 -4.88324 
-9.99403 -8.66925 10.0617 
8.13925 23.5168 3.44906 
4.62984 23.1188 5.78744 
5.36291 -10.3768 -17.3456 
17.3538 -10.5022 -10.3775 
-4.98849 -6.32183 -6.09866 
-14.9425 5.65073 16.876 
-2.20409 -8.20927 11.6728 
10.595 3.98671 17.7138 
-7.88137 19.6224 12.015 
15.9989 -2.01756 -0.910263 
6.57025 0.397958 -8.86535 
14.0321 -9.66434 7.05033 
-15.5545 7.73814 -14.8059 
-12.3941 16.308 13.6791 
2.02378 -19.1941 5.95519 
-0.774585 5.89996 16.6252 
13.1624 22.7198 1.02336 
12.5356 5.35463 16.1466 
-8.73461 -15.8211 4.68134 
9.85382 -25.9265 -8.9732 
-19.3902 5.82359 -0.258426 
-19.3655 -2.18888 10.921 
0.977234 -29.0601 -1.71371 
14.1656 -4.54287 8.32442 
0.587481 28.7275 -4.7629 
6.30014 23.5858 -7.49973 
6.05796 0.840519 -6.15574 
16.0647 -19.3526 -2.02635 
-4.77849 16.4229 -5.25952 
-13.5192 10.078 16.7936 
2.85968 -16.8045 6.52296 
-0.231173 0.661164 16.5063 
9.11779 23.8314 -7.59385 
14.857 13.732 8.63836 
-4.26231 -3.96339 -6.25773 
16.2485 -8.3929 -2.86915 
-8.75686 5.85545 -13.4462 
-7.78493 5.9429 16.6319 
2.55983 -8.09526 13.7221 
8.28924 2.68653 18.2861 
-0.905969 26.7116 1.14048 
17.4169 13.7967 0.650494 
15.7439 -4.11662 -8.83346 
14.0945 -2.0037 9.47761 
-15.3503 13.7492 -8.92379 
6.00332 18.549 11.3651 
8.67313 -25.3569 -0.100964 
5.34385 11.9641 15.5972 
3.4239 23.4915 -6.12214 
11.3522 15.1896 13.4803 
-6.72018 -11.6142 -6.85911 
3.41075 -20.9017 -16.9876 
-17.5501 -0.12259 -8.05847 
-8.77149 -3.82221 -5.75352 
-8.37382 -16.291 -7.57627 
14.8555 -15.0836 1.77263 
-6.56184 18.1809 -4.6057 
6.78043 4.72035 -4.32032 
-3.87511 -8.06715 -7.51985 
12.2604 -22.7691 -11.8481 
-12.8889 9.93968 -11.2698 
-16.3286 11.2151 3.70908 
-1.72347 -26.326 -10.1131 
-10.7656 -0.285174 15.519 
12.1241 22.5657 -6.47664 
9.57264 21.5783 7.05896 
7.92904 -15.092 -18.2899 
14.9882 -15.3947 -14.8413 
-5.48402 -1.1511 -7.21942 
-16.0136 1.76739 15.9533 
-7.67671 -13.483 5.02715 
9.24247 -4.48785 16.9956 
-14.6881 14.179 7.41315 
13.8756 -0.535734 5.24691 
10.3648 -4.18682 -12.3232 
15.8583 -12.5523 2.144 
-20.0827 7.55024 -1.91945 
-14.179 14.3421 14.0879 
2.91312 -23.1541 4.48674 
-1.69618 10.9767 15.8662 
16.9117 18.7534 -0.911797 
13.9316 7.96675 9.08024 
-11.564 -13.4452 1.57867 
8.53377 -27.2888 -2.32574 
-18.196 14.1192 -2.97127 
-18.5672 2.30359 7.00508 
-5.31088 -23.9387 4.14747 
11.9237 -5.6425 12.7978 
-4.5903 24.0193 3.27147 
12.0324 15.2286 -8.87124 
6.86755 8.38888 -6.21998 
14.6175 -22.8486 -7.53072 
-0.519261 13.9179 -6.13958 
-17.0756 8.36737 11.1605 
-0.320238 -12.8578 6.6677 
0.0889956 -2.1816 15.9791 
10.146 20.1081 -9.58333 
13.9733 19.9051 5.04384 
4.00776 -4.4019 -13.1866 
17.9524 -15.803 -3.1153 
-10.1215 -0.481637 -9.01729 
-2.37834 -3.15164 15.0568 
-2.75004 -12.9134 5.77511 
8.23125 -0.10197 18.3055 
2.01897 23.1993 6.49633 
15.3509 15.1441 6.85649 
15.9002 -6.52201 -10.3575 
13.5559 5.56793 9.20837 
-15.2549 18.2086 -3.16234 
1.72621 20.0065 10.5587 
8.11989 -22.1056 2.23028 
2.37236 13.472 14.8861 
9.28062 12.2584 -7.2929 
9.36675 14.4429 14.337 
1.69158 -0.795661 -5.43314 
7.80324 -24.2135 -13.5021 
-18.482 -2.14664 1.76998 
-15.7702 -6.63434 4.15597 
-9.57874 -21.7773 1.93984 
11.586 -10.8514 10.5665 
-12.2477 19.2797 6.81025 
7.70413 21.6669 -8.3666 
13.9905 1.71686 -6.10124 
18.0448 -14.5043 -9.84066 
-3.94814 10.5904 -7.90545 
-16.4787 10.311 12.6175 
-2.09677 -28.1673 -5.03628 
-6.92676 -3.14212 14.4775 
9.0466 24.3995 -4.52212 
13.0829 18.2813 9.94089 
8.00027 -9.81133 -16.9733 
18.41 -11.9827 -6.28567 
9.68959 3.49852 -5.69977 
-9.01264 10.9878 16.3278 
3.63056 -12.0854 9.89154 
12.3327 10.4638 15.4299 
-5.25871 20.8426 10.8678 
16.2211 2.66522 0.625033 
11.1773 1.57034 -7.70697 
14.9677 -7.1877 6.2344 
-10.8988 12.1392 -8.64399 
-10.0448 16.2178 14.5485 
4.01324 -21.1992 5.04978 
6.09551 4.43589 17.9214 
12.1905 21.1772 5.97218 
13.9949 9.33283 13.7965 
-13.8952 -8.41833 4.83179 
13.4736 -23.8338 -3.07703 
-19.0098 10.3775 -1.24738 
-13.412 -3.66113 13.9222 
-1.04447 -25.7971 3.93827 
13.2481 -1.63726 11.7778 
-2.73674 28.2533 -1.04706 
16.2142 20.4196 -6.4545 
16.9129 8.46139 -2.9183 
17.5136 -18.7821 -6.2482 
1.29657 18.7511 -5.55341 
-5.34901 14.2861 15.0869 
6.81171 -15.4154 8.43453 
6.96247 -5.98923 16.6935 
14.8749 15.3269 -8.2294 
13.9284 11.7278 13.4906 
2.62645 -1.62654 -7.93564 
15.8477 -6.80107 1.38465 
-8.64277 9.78472 -9.8388 
-3.0784 4.33054 16.5434 
7.24261 -10.8438 13.2767 
10.3831 9.34702 16.6125 
2.42722 24.1822 4.35994 
13.7946 19.2927 7.66482 
15.5473 -2.10342 -7.71691 
12.2055 2.77646 16.3626 
-11.7676 19.6836 0.235147 
13.6883 14.0607 12.7438 
12.3498 -19.2555 0.97953 
6.08535 7.10805 17.353 
11.4419 12.6393 -7.3036 
11.9464 12.9746 14.6039 
