-24.6404 -5.28107 -2.91735 
17.1751 -1.94991 -10.3146 
-15.9985 9.39474 -3.03395 
-7.45108 -1.5883 -3.44028 
-22.326 -10.7627 4.14678 
-6.53559 -14.5875 -2.16173 
-16.5917 7.09742 -2.62872 
5.74057 -16.8082 -0.22784 
-15.9626 -11.626 -5.57136 
11.7463 -15.8322 -10.6385 
-20.885 2.85914 -1.12679 
21.0649 -5.20848 -10.5503 
-26.0061 -5.45336 1.05203 
-7.27171 -17.7729 5.28429 
-11.9964 19.185 -5.3481 
18.5591 -13.2729 -10.1718 
-23.3844 -5.02629 -4.66753 
12.8481 -16.6112 -9.38141 
-10.3321 22.6815 0.481328 
4.48204 4.63127 -3.54947 
-23.5296 -9.67939 2.91472 
-10.2361 -6.51218 -4.70379 
-11.7756 13.4112 -6.06367 
7.6271 -18.2019 4.69831 
-21.6667 -9.05745 -4.5326 
17.9936 -14.2474 1.7749 
-15.8515 12.0985 -1.14171 
20.9686 -7.51785 -10.7126 
-27.4697 -0.724545 7.20737 
-1.13314 -16.1595 0.0116361 
-6.88865 13.3217 -7.28804 
3.94105 15.9329 12.2304 
-18.8901 -5.13302 -4.83406 
11.3316 -13.9533 -11.1708 
-14.8242 13.1383 -3.77871 
7.364 -4.72955 -1.72559 
-15.5436 -14.3941 -0.433239 
-10.4188 -8.55107 -5.50211 
-8.98068 5.94723 -3.98904 
17.3794 -11.7034 4.80823 
-14.2301 -10.7134 -5.93774 
15.9951 -8.20098 -14.046 
-15.3247 15.8711 5.53683 
5.71997 13.6711 -7.28011 
-23.4368 -6.94426 -4.10158 
-1.10843 -18.4855 4.11271 
-1.59295 19.8899 -6.21561 
16.0234 8.82612 -4.40697 
-18.9167 2.76963 -2.72782 
9.59188 -16.7995 -2.45061 
1.87545 19.4087 0.415779 
4.77625 15.3904 -6.59567 
-24.955 -7.11207 0.178326 
1.92909 -10.9433 -2.78972 
-5.45991 11.9762 -6.85106 
19.8961 -3.93285 5.59203 
-10.3618 -15.5483 -0.137832 
11.7526 -16.9928 -3.47951 
-6.83827 21.0508 6.00765 
16.7338 8.01127 -6.31435 
-23.5858 3.05954 2.39353 
10.5656 -15.5881 -8.92271 
0.0858055 18.634 -6.67148 
11.5584 13.0425 1.01602 
-19.7086 -10.5139 -5.03201 
21.2765 -0.987273 -10.3688 
-10.2248 17.0044 -7.36275 
0.477258 0.84815 -2.82795 
-20.3638 -9.87316 9.8208 
-4.55894 -15.1761 -1.31253 
-12.3337 11.5199 -5.12037 
11.572 -17.5176 0.352766 
-17.442 -6.44347 -5.09337 
13.0703 -1.07296 -8.28015 
-16.1189 12.0211 11.7397 
21.4887 3.71899 -5.309 
-26.9159 -3.52026 1.65715 
-4.07081 -18.5695 8.42202 
-8.73129 20.578 -6.62041 
21.7773 -6.65876 0.449261 
-20.7224 -2.00133 -4.22372 
11.343 -16.5611 -7.61612 
-6.77914 22.6033 -1.47728 
6.0121 7.61174 -5.04373 
-20.6849 -12.2418 0.879863 
-3.49452 0.60148 -3.2501 
-6.71905 15.3606 -8.11879 
14.8323 -14.519 5.84208 
-14.2273 -13.4683 -3.14562 
19.9011 -13.8719 -1.57391 
-15.0522 14.93 1.76677 
23.1465 -6.78376 -5.67743 
-25.9093 2.92632 11.5452 
0.510542 -17.0303 1.00668 
-1.6352 11.8288 -7.31515 
7.24138 13.8424 12.677 
-14.9843 3.345 -3.19294 
11.9378 -10.1068 -11.2746 
-12.8754 20.563 -2.05943 
8.9002 -3.74342 -2.50416 
-14.3172 -15.3859 2.62386 
-6.53988 -12.435 -5.83166 
-3.40664 2.58669 -3.50418 
18.1765 -9.50867 5.25181 
-4.89082 -9.35013 -4.92618 
13.037 -10.1304 -13.4724 
-14.376 19.4407 5.9012 
18.6404 0.206916 -10.6438 
-25.3861 -3.39424 -1.8848 
7.77653 -17.5628 11.5962 
4.9178 18.1212 3.10129 
20.1661 3.84586 5.00551 
-17.6449 8.45084 0.849213 
17.6143 -14.6421 -9.23385 
-1.96776 20.4038 4.0227 
8.94762 13.6279 -4.64641 
-26.7145 -4.28496 5.0656 
6.51129 -10.834 -2.69646 
10.0892 6.53969 -5.5441 
19.0275 -3.39018 7.43488 
-11.5915 -15.8725 7.79176 
15.0459 -15.0465 -12.5473 
-5.45632 19.7215 8.39871 
22.0216 -1.60215 1.94648 
-21.9961 5.25956 6.05478 
7.83637 -15.9003 -3.19506 
7.57586 16.4983 0.47619 
13.5371 10.7792 3.93044 
-25.4049 -5.46261 -0.999272 
13.8208 2.94956 -8.88917 
-12.42 15.4311 -6.32442 
-7.33884 2.64109 -3.45597 
-23.2036 -8.42115 7.04419 
-10.3515 -16.3601 1.71529 
-13.345 5.94231 -3.51712 
7.60569 -18.0099 2.59971 
-10.47 -12.4934 -5.59346 
12.4664 -6.81695 -10.1435 
-18.8876 7.62615 5.30607 
22.9419 -2.28465 -9.45657 
-27.6772 -1.12038 3.04044 
-4.97524 -18.1435 4.13104 
-11.8307 20.7983 -3.98555 
20.9806 -12.4343 -2.94839 
-18.5481 -2.95655 -4.13384 
13.3587 -16.7829 -7.21158 
-1.93529 21.0654 -0.0632859 
8.40644 5.74486 -4.46702 
-20.5667 -11.757 -1.65724 
-5.64658 -4.60157 -3.75998 
-10.5475 15.0381 -7.02454 
9.80608 -17.7474 5.24731 
-19.5073 -11.8186 -3.36383 
19.8721 -9.60705 2.28644 
-15.7647 12.9934 2.61719 
22.8799 -7.18241 -7.57666 
-26.0346 -0.84423 10.3058 
0.746787 -13.9673 -2.55361 
-3.55208 15.2498 -8.53434 
7.32601 14.5889 10.4551 
-16.7462 0.0770026 -3.40118 
12.1713 -0.912846 -6.44897 
-14.5935 16.6832 1.13691 
11.5666 -5.00067 -7.11023 
-16.3086 -14.2645 5.46587 
-8.5861 -11.4354 -6.14236 
-1.48235 5.63408 -4.28573 
14.0049 -12.4616 9.46866 
-6.56402 -6.30538 -4.28299 
18.3283 -8.98899 -13.2788 
-13.9133 17.5199 9.37495 
10.7905 11.0249 -6.35557 
-21.8739 -7.25059 -5.23135 
2.49867 -19.0237 8.05538 
-0.0897386 20.0963 -2.79146 
16.3654 8.30639 1.3807 
-17.748 5.6016 -2.0102 
17.2251 -16.166 -3.36473 
6.03627 16.157 8.63051 
9.94568 13.833 -2.72715 
-24.6467 -8.11682 3.97287 
2.55166 -12.9545 -2.65204 
0.0391976 8.63686 -5.55133 
19.121 0.369933 7.82395 
-9.64982 -16.9332 6.21571 
12.9777 -15.4545 -12.2654 
-3.64315 21.2793 3.01238 
19.9957 5.56033 -1.85927 
-24.6353 3.43217 4.11426 
8.20947 -13.2399 -5.21455 
5.03122 17.2689 -2.52192 
13.6306 9.81906 11.1612 
-17.8562 -10.3461 -5.84616 
19.7849 5.1356 -5.58369 
-10.4445 20.8189 -5.52338 
2.05444 -2.1854 -2.07727 
-16.4177 -13.6107 7.58198 
-4.59914 -16.3394 0.367598 
-6.88783 8.80139 -5.1198 
13.5104 -17.2973 1.28031 
-13.3349 -2.1886 -3.64603 
13.7762 -6.71383 -11.5575 
-15.2609 15.5317 7.55994 
23.2363 0.0463437 -1.91151 
-27.3902 2.34286 5.43214 
0.467558 -19.0507 7.5547 
-5.19417 20.7322 -6.80346 
21.98 -3.7734 1.54045 
-18.7722 0.909547 -3.35846 
9.38473 -14.3879 -7.38533 
-5.20182 22.2181 -2.64897 
1.91179 13.5062 -8.24947 
-19.5163 -12.8024 4.43838 
1.26754 -8.52798 -2.63097 
-5.08786 14.1492 -8.05834 
13.0876 -14.1989 9.03809 
-10.0773 -13.6584 -4.01805 
21.2877 -9.44463 -0.409871 
-13.5997 21.0977 3.71256 
23.6193 -3.29962 -3.8938 
-20.1151 6.79375 9.55764 
4.30426 -18.6314 5.3418 
1.65429 11.4266 -7.21792 
8.5615 13.1958 12.0594 
-9.28662 -0.366278 -3.37054 
11.4176 1.13116 -4.80689 
-9.69968 22.1932 3.9205 
6.98915 11.7805 -7.08608 
-14.4115 -13.5943 11.5612 
-4.83185 -13.4676 -4.95558 
2.61011 1.91518 -2.75406 
16.8887 -7.46996 9.09874 
-0.178173 -5.43081 -2.73085 
19.4774 -7.39624 -11.9793 
-10.5581 19.7068 8.71595 
19.3282 2.26604 -10.4641 
-24.1494 0.150394 -1.12702 
9.67353 -17.4412 7.90151 
9.25124 14.8091 5.59654 
17.9358 4.55848 9.64218 
-17.5103 9.58547 3.74338 
18.1883 -14.7412 -6.97947 
-0.678785 18.4844 9.18022 
12.3061 11.344 -4.38636 
-24.1738 -3.51421 11.7514 
9.63295 -8.95347 -5.43596 
7.46144 9.47511 -6.28819 
17.8252 -0.514212 10.2217 
-7.82875 -17.3043 9.15531 
20.1287 -11.7451 -9.19169 
-2.596 18.8524 9.37962 
17.4506 7.51629 -0.292543 
-18.3004 8.50438 7.69291 
5.78143 -15.5677 -2.13032 
12.676 11.2169 7.13684 
15.1518 9.31011 4.5914 
-25.8851 -1.58071 -0.554092 
21.17 -3.01813 -10.4627 
-14.3494 11.2882 -4.3502 
-5.50214 -0.47231 -3.29885 
-21.7261 -9.40735 8.14731 
-8.39794 -16.1616 0.506967 
-14.1612 9.35009 -3.99152 
5.68119 -17.8301 1.77238 
-12.4445 -11.8303 -5.68667 
13.5116 -11.9607 -14.4007 
-20.0481 5.31282 2.08277 
23.6488 -3.26431 -7.69622 
-27.3215 -3.08564 3.51904 
-5.46838 -18.2757 6.04664 
-13.5242 17.2174 -2.85385 
20.9367 -12.4523 -4.96302 
-24.2372 -3.22188 -3.47017 
15.3419 -11.726 -14.7792 
-5.36008 22.0033 2.23135 
6.52111 4.05776 -3.32384 
-22.233 -11.0674 1.90673 
-8.32204 -5.38648 -4.20773 
-8.73198 10.0941 -5.34652 
7.00821 -18.3262 8.13659 
-22.4299 -9.99417 -1.82944 
17.8088 -12.9141 3.22776 
-15.375 13.4997 0.404714 
21.8853 -8.4593 -9.10648 
-25.2344 -3.00019 9.9909 
2.24817 -16.4169 0.0793016 
-2.14774 13.7048 -8.21306 
5.06834 15.6661 11.4306 
-15.1421 -3.19012 -3.87039 
12.1948 -11.7582 -12.4687 
-14.1389 15.3505 -2.91961 
5.7315 -3.716 -1.48615 
-13.8667 -15.1791 0.671835 
-6.6732 -8.40584 -4.9852 
-5.18352 5.59853 -4.17246 
16.2952 -9.75675 8.26202 
-14.0917 -8.59699 -5.68173 
15.4589 -6.74376 -12.6885 
-14.7987 17.5251 7.36486 
17.4451 5.46703 -9.6663 
-23.8112 -8.61012 -0.816514 
2.24839 -18.5191 4.12476 
3.38839 18.3412 -2.10251 
15.1896 9.63982 -2.58708 
-19.0587 5.4758 0.037944 
13.678 -17.0491 -2.79527 
2.9583 18.8049 3.76348 
8.82104 15.0612 -1.6504 
-24.4114 -8.39545 1.63022 
5.02675 -9.7774 -1.93571 
-3.41756 10.92 -6.56639 
18.5926 -1.58032 8.71811 
-12.6737 -15.9601 3.77132 
15.4196 -16.6381 -4.13121 
-3.39772 19.5844 7.72207 
18.3145 6.77492 -2.13388 
-21.7586 4.11445 2.29393 
10.1964 -11.9699 -8.48592 
3.30121 16.825 -6.15153 
11.2615 13.2733 3.60412 
-16.3542 -12.7993 -3.86218 
21.9154 2.65139 -6.98296 
-8.68772 18.6092 -7.55582 
2.27667 -0.0506384 -2.31988 
-17.9377 -11.2336 11.5263 
-2.81921 -14.3568 -3.03888 
-10.7693 6.97895 -4.03697 
13.5566 -16.889 3.29222 
-11.9293 -5.49384 -4.44687 
14.4575 0.441709 -9.48873 
-16.3539 11.6402 9.65312 
21.7232 4.10986 -1.9662 
-27.6099 0.858428 3.74146 
-2.04917 -18.646 11.5038 
-6.7652 22.4032 -3.99648 
23.3208 -2.02601 -1.97789 
-20.7623 -0.229403 -3.56082 
11.662 -16.8004 -5.57581 
-6.8879 22.4775 1.19246 
5.57976 9.39749 -6.02568 
-19.4627 -13.1049 2.0968 
-1.45385 1.7014 -3.25742 
-5.13401 18.8341 -8.05984 
15.4511 -11.5876 7.96026 
-12.0168 -14.0775 -2.49964 
19.3502 -13.2343 0.554193 
-14.928 18.1513 2.73811 
22.7922 -6.08052 -1.95535 
-23.6925 4.91999 9.60138 
3.95294 -17.3234 0.981534 
0.107705 12.7011 -7.91848 
7.39542 13.8206 12.6461 
-12.9146 1.9545 -3.27089 
11.4679 -6.93142 -8.21627 
-12.8936 21.752 1.8866 
8.60167 1.69212 -2.88737 
-13.097 -15.5349 6.02758 
-1.50283 -11.4371 -4.23258 
0.569991 4.69423 -3.89842 
18.6924 -7.54059 5.81273 
-1.48451 -9.17462 -3.76936 
15.4871 -5.23143 -11.2284 
-11.847 20.2627 7.28284 
21.8993 1.49138 -8.84207 
-22.8416 -1.50652 -3.5827 
10.1547 -16.7246 9.66368 
6.36108 17.2894 4.11654 
18.7754 3.19765 8.30164 
-17.079 9.97652 1.57391 
19.6555 -13.6904 -5.94076 
2.6904 18.2583 6.51002 
11.9046 12.5211 -1.23361 
-26.9274 -2.9126 6.48115 
8.65664 -8.14088 -3.4768 
12.8571 5.18529 -7.46328 
16.7491 -2.92427 11.6703 
-9.01702 -16.5069 10.9297 
16.0091 -13.4562 -13.5808 
-6.95866 19.3291 9.72827 
21.2718 1.13654 3.44098 
-20.4135 6.24746 5.99954 
7.38286 -12.1531 -3.8634 
8.07988 16.1637 4.35225 
13.6626 10.8402 1.74945 
-26.7464 0.438198 1.92772 
17.5253 3.47361 -10.5136 
-13.7217 15.2161 -4.82872 
-5.30759 3.59296 -3.66791 
-21.799 -8.27074 9.91618 
-6.74331 -17.6078 3.31604 
-11.2478 5.15355 -3.62607 
11.5506 -17.5741 2.36077 
-8.36262 -13.1907 -5.3462 
13.3813 -3.12913 -9.05972 
-17.1623 10.2005 7.79015 
23.1046 0.826619 -7.22083 
-27.6999 1.62285 7.20804 
-1.31802 -18.8803 6.22124 
-9.88194 22.7591 -1.56833 
22.2351 -9.00897 -2.77574 
-16.6272 -1.95418 -3.67439 
14.8572 -16.4083 -8.6594 
-0.0449089 20.2289 1.20724 
11.8982 7.15564 -6.93392 
-20.9914 -12.0567 3.1872 
-3.68389 -3.48608 -3.31469 
-8.67145 14.3265 -7.28623 
13.1407 -16.2765 5.48481 
-17.6081 -13.6612 -0.510876 
20.4841 -7.16397 2.837 
-16.1019 12.4545 4.94305 
23.3557 -5.27786 -3.91276 
-26.9632 2.44314 9.38405 
4.18803 -14.328 -2.42298 
1.63751 18.9858 -3.45359 
9.80718 12.7014 10.4501 
-12.7661 -0.131565 -3.37863 
12.8 3.19407 -7.15598 
-13.5173 20.7804 -0.0148817 
11.1858 -0.920526 -4.6206 
-13.1865 -15.0226 8.35897 
-4.68717 -11.4725 -5.46578 
2.3793 5.71771 -4.16232 
15.7604 -8.76941 10.0045 
-2.11422 -6.60739 -3.45802 
19.3813 -11.5504 -10.9949 
-12.2907 18.7992 9.33464 
12.857 10.2275 -5.94328 
-19.8583 -6.69377 -5.4265 
4.33031 -18.6877 11.7227 
3.55883 18.7248 1.62943 
17.5023 7.75787 4.99462 
-17.0719 8.75948 -1.47018 
15.4011 -16.9355 0.11777 
3.01587 17.5647 8.55375 
12.9588 11.679 0.157827 
-24.4599 -6.14344 7.84566 
5.09565 -7.84666 -1.57254 
1.76691 9.50549 -6.03629 
19.5334 2.01824 6.88752 
-8.01457 -17.4685 7.14775 
17.1964 -11.7846 -13.6883 
-0.470169 19.5235 5.44522 
21.0351 4.54284 1.72881 
-24.9753 4.4693 7.65292 
9.90401 -10.4359 -6.97677 
5.66919 17.4214 -0.658794 
15.4359 8.84946 9.48636 
-16.0917 -9.55334 -6.00564 
18.3597 6.54903 -6.10563 
-10.2287 22.1455 -3.77251 
6.32786 0.254231 -2.04213 
-15.7326 -13.0225 10.555 
-1.14425 -17.5703 1.94953 
-3.39499 8.70771 -5.42479 
16.4794 -14.9894 3.02651 
-11.7257 -3.34645 -3.849 
14.7239 -1.59892 -9.57138 
-14.5622 15.388 11.3864 
22.6323 1.26813 -0.17317 
-26.8349 3.45725 7.66557 
1.64202 -19.0678 9.89851 
-3.44813 21.5871 -3.54366 
21.1752 -0.721798 3.82635 
-17.0971 4.05858 -2.88864 
8.32652 -15.0784 -5.04175 
-1.85122 21.0106 -2.14082 
6.32415 15.2227 -5.17395 
-19.2199 -12.169 6.819 
3.49496 -5.23221 -1.66653 
-3.42593 19.6822 -7.35505 
12.7749 -12.5271 11.3844 
-10.262 -14.4933 -1.98883 
20.6416 -4.726 3.83485 
-10.673 21.3269 5.90283 
23.3781 0.995455 -3.68536 
-21.8716 5.68074 10.5697 
4.63691 -18.7798 7.63604 
-0.197992 17.1193 -8.16791 
9.53199 12.1557 13.2213 
-9.29663 4.02214 -3.59456 
14.1453 4.97285 -9.08732 
-7.57758 20.2775 7.76566 
15.6654 6.43768 -9.31533 
-11.3409 -15.5485 10.0587 
-1.28042 -13.448 -3.67671 
4.42979 0.868124 -2.22169 
17.0791 -5.64196 9.94974 
1.76877 -4.28515 -2.09474 
17.2727 -3.92945 -10.7707 
-7.79681 18.5515 11.5563 
18.9615 5.4334 -7.80737 
-23.9354 1.68899 0.440508 
11.7054 -15.2633 9.8929 
11.0262 13.095 5.70041 
17.4331 6.93892 9.1077 
-16.2924 11.8957 7.41564 
18.7327 -15.3267 -2.42806 
1.23716 17.9916 9.01849 
14.1819 10.5659 -1.03409 
-23.1328 -5.89546 10.8598 
10.8229 -5.04152 -5.44888 
3.51621 11.8536 -7.44388 
17.0839 1.08749 11.5525 
-5.95145 -17.7698 10.7631 
21.6983 -10.7884 -6.06039 
-1.85788 17.9803 11.6328 
18.8048 6.90855 3.67113 
-18.2018 8.73751 11.6904 
9.45526 -17.2975 -0.561331 
13.2987 10.4206 8.87772 
16.0724 8.71309 6.14813 
-24.3219 -7.08456 -2.02119 
19.2116 -1.55182 -10.5767 
-15.7979 11.2494 -2.8816 
-7.42029 0.520572 -3.33093 
-21.9919 -10.2232 6.23214 
-6.48754 -15.6785 -0.42304 
-14.8437 7.47196 -3.45377 
7.53386 -17.5006 0.608983 
-14.2302 -12.5599 -4.83957 
12.44 -13.673 -12.914 
-20.5729 4.10192 0.444517 
23.3514 -5.26108 -7.83179 
-26.4383 -5.14001 3.13949 
-3.06293 -18.5255 4.72751 
-12.9147 18.9955 -3.50535 
20.546 -12.1387 -7.15005 
-21.773 -5.32856 -5.18645 
14.2272 -16.1582 -10.9114 
-8.8482 22.5965 1.9995 
6.45066 5.85277 -4.14926 
-23.4909 -9.19718 5.12956 
-8.46297 -7.46947 -4.88778 
-9.94275 12.869 -6.30234 
8.35598 -18.0386 6.64703 
-21.2196 -10.4955 -3.35305 
19.1104 -11.9003 1.99605 
-16.2229 11.7155 1.03294 
22.3259 -6.41445 -9.4574 
-26.4716 -2.03862 8.34842 
0.578346 -15.508 -0.800621 
-3.7382 12.7262 -7.57645 
5.76899 15.2088 11.6942 
-15.5404 -5.47036 -4.55812 
11.2274 -11.9937 -10.5869 
-14.991 13.7417 -1.95824 
9.87304 -4.99075 -3.7677 
-16.0421 -14.6531 1.42785 
-8.58272 -9.446 -5.70019 
-6.93802 6.62902 -4.3535 
16.9373 -10.541 6.47613 
-12.3619 -9.68126 -5.89724 
17.6204 -7.20528 -12.9955 
-15.1711 17.7982 5.24815 
7.28371 13.8877 -5.95566 
-23.059 -8.56231 -3.00039 
0.596827 -18.8027 5.46872 
0.0515232 19.5736 -4.80834 
16.8984 8.08882 -2.59518 
-19.239 4.15136 -1.4942 
11.5436 -17.2491 -1.55221 
1.57328 19.4584 2.44575 
6.49503 16.1227 -3.24488 
-25.4601 -6.88363 2.50729 
3.02415 -9.35569 -2.14224 
-4.97949 9.90396 -5.82354 
19.5793 -1.52014 6.86357 
-8.48418 -16.967 2.39481 
13.5622 -16.8769 -4.96165 
-5.10744 20.4051 6.60793 
17.642 7.38378 -4.40934 
-22.7527 4.30841 4.13544 
10.3416 -13.6967 -9.32691 
1.75972 18.2399 -5.40063 
10.3418 14.3273 1.74538 
-17.9241 -11.9096 -4.69166 
22.7555 -0.324488 -9.11265 
-10.4771 19.132 -6.73827 
0.306724 -1.20935 -2.54597 
-19.315 -10.0233 11.6232 
-2.72123 -15.4026 -1.01264 
-10.3914 11.1058 -5.40056 
13.5758 -17.2908 -0.78519 
-13.8802 -6.54651 -4.88194 
13.2263 1.01873 -8.15058 
-15.4263 13.8214 10.799 
22.493 3.07145 -3.71062 
-26.9851 -1.57125 1.13913 
-2.5729 -18.6799 10.6086 
-6.93939 21.5644 -6.01513 
21.3347 -5.54644 2.10283 
-18.6793 -1.06165 -3.74565 
9.6637 -15.9253 -6.41168 
-5.2848 22.2351 -0.162228 
7.96362 7.60618 -5.35988 
-18.0002 -13.7965 3.64862 
-1.53408 -0.297426 -2.97066 
-5.17137 16.5942 -8.5306 
15.9918 -12.5373 6.19662 
-13.8013 -14.3624 -1.48757 
20.4896 -12.0991 -0.763516 
-15.1144 16.3946 3.44486 
22.8803 -7.2909 -3.6578 
-24.6635 4.27154 11.5278 
2.19938 -17.7414 1.94679 
-0.0688907 10.6188 -6.67392 
7.9495 13.2489 13.08 
-13.1359 4.03602 -3.32735 
11.6222 -8.55502 -9.68551 
-12.101 22.0932 -0.123123 
9.60597 -1.67394 -2.95584 
-14.5713 -15.1716 4.66539 
-4.70554 -14.3544 -3.16493 
-1.33101 3.6452 -3.68703 
17.5407 -8.46573 7.20548 
-3.15695 -8.25808 -4.11154 
13.9986 -8.25539 -13.3628 
-12.9354 20.751 5.69143 
20.7229 0.841966 -10.271 
-24.4712 -1.44278 -2.16414 
9.20377 -16.745 11.5745 
5.80063 17.112 5.98736 
19.3866 4.30846 6.61995 
-18.2422 8.06946 3.07939 
19.1995 -13.4 -8.14941 
1.43761 19.0562 4.93954 
11.324 12.5972 -3.10363 
-25.7059 -5.25652 6.50541 
7.05697 -8.82253 -2.27354 
11.5608 5.20661 -5.96183 
18.1125 -4.45468 8.69317 
-8.68788 -16.5589 11.1893 
16.7686 -14.4391 -11.5292 
-4.56362 18.9503 10.1275 
22.0779 0.327626 1.71092 
-21.2958 5.92704 8.30738 
6.618 -14.297 -3.54685 
8.8494 15.7732 2.45246 
13.9525 10.2415 5.92903 
-26.2933 -3.61921 -0.190228 
15.2434 2.22627 -9.99677 
-11.9035 17.3858 -6.45325 
-5.45652 1.56823 -3.36933 
-23.1499 -7.33688 8.71199 
-8.95569 -17.1976 4.31914 
-12.5957 7.69894 -3.94483 
9.55961 -17.8732 3.34708 
-10.5677 -10.5835 -6.06538 
12.4269 -5.05689 -8.84512 
-17.8713 9.11066 5.7668 
23.623 -1.25595 -7.48765 
-27.9771 0.173604 5.49211 
-2.91074 -17.9018 2.79231 
-11.5893 22.0098 -2.1075 
21.4436 -10.7115 -1.94256 
-16.9937 -4.21745 -4.24898 
16.0314 -15.5946 -10.1608 
-1.77186 20.8083 2.01155 
9.70058 8.31054 -6.26177 
-19.3615 -12.8279 -0.495573 
-5.53642 -2.52882 -3.42349 
-8.43305 16.3271 -7.83544 
11.2722 -17.024 6.39776 
-18.206 -12.8472 -2.42196 
19.4032 -8.45393 3.92268 
-15.4299 14.3968 3.90907 
23.5689 -4.7572 -5.88178 
-25.9412 -0.0769757 11.1519 
2.38894 -14.955 -1.63299 
-1.84361 16.1796 -8.599 
8.64544 13.5985 10.3867 
-14.7793 1.26133 -3.25715 
12.3929 1.12198 -6.44572 
-14.2956 18.6421 0.635254 
11.4674 -2.91185 -5.70838 
-14.738 -14.6351 6.91281 
-6.65659 -10.4104 -5.74423 
0.300351 6.63446 -4.62843 
14.2856 -9.63563 11.6359 
-3.82713 -5.57335 -3.67676 
19.8553 -9.35789 -11.7214 
-12.315 17.7682 11.0787 
10.4006 12.3633 -4.97817 
-19.897 -8.69132 -5.57577 
3.85731 -18.9082 9.6942 
1.68456 19.3605 -1.45656 
17.9016 7.3611 1.88204 
-17.9346 7.06156 -0.571633 
17.258 -16.2804 -1.10726 
8.37705 14.8492 7.59552 
10.494 13.8818 -0.637862 
-24.5578 -7.30246 6.07981 
4.00026 -11.4836 -2.41268 
2.03001 7.60028 -5.01951 
20.4128 1.82696 5.12613 
-9.91512 -16.5476 8.3125 
14.0633 -13.824 -13.9587 
-4.16648 20.8372 4.90535 
20.796 5.11379 -0.0983191 
-23.8818 4.43292 5.92715 
8.85748 -11.0194 -5.29876 
7.24824 16.2585 -1.42188 
14.4632 8.86043 11.7858 
-17.9923 -8.26586 -5.77026 
20.7701 4.70374 -3.64045 
-8.67232 22.0342 -5.01499 
5.89238 -1.69003 -1.66841 
-14.8933 -13.9918 9.04975 
-2.83125 -16.7765 0.870284 
-5.19497 7.77583 -4.8982 
15.3237 -16.4308 2.15581 
-11.1121 -1.4001 -3.50668 
13.8482 -4.90348 -10.1852 
-14.9536 15.7886 9.41201 
22.7827 -0.837278 -0.0223327 
-25.9107 3.62681 5.77068 
-0.357115 -19.0423 9.48843 
-3.32727 20.9998 -5.68943 
21.2643 -2.93151 3.29643 
-16.8066 2.08491 -3.20236 
9.22925 -12.5883 -6.8053 
-3.65094 21.7494 -1.33118 
3.05502 15.4736 -7.84376 
-17.9429 -13.3163 5.84603 
1.51448 -6.41384 -2.29364 
-3.4341 17.6231 -8.46088 
14.5258 -13.4738 7.55996 
-8.38486 -14.0986 -3.07006 
20.9186 -8.28995 1.19181 
-11.7645 21.8166 4.24173 
23.6531 -1.16567 -3.84133 
-19.2967 7.57811 11.6658 
6.11134 -18.5054 6.2533 
3.5726 9.9999 -6.3312 
9.67258 12.2321 12.6438 
-9.202 1.90762 -3.36074 
10.1127 4.46863 -4.58225 
-7.48623 22.2024 3.44628 
8.64977 12.3333 -6.46327 
-12.3248 -14.7077 11.7556 
-3.05607 -12.8732 -4.72065 
4.69131 2.74664 -2.78226 
18.0068 -6.42162 7.79844 
0.0576401 -3.30371 -2.53225 
19.3647 -5.52965 -11.2855 
-9.61323 18.3983 11.5095 
20.6044 2.97865 -8.9239 
-22.5021 1.58449 -1.13878 
11.7054 -16.1854 8.04017 
9.89194 13.6787 7.28828 
16.8144 5.49729 11.2673 
-16.8815 10.8195 5.63228 
18.5612 -15.0775 -4.73574 
1.4198 17.2594 11.258 
14.1707 10.154 -4.18259 
-23.2557 -5.53951 11.147 
9.82342 -6.99979 -4.61431 
9.06287 10.3476 -6.79752 
16.9614 -0.902446 11.7295 
-5.23854 -18.0674 10.2955 
21.3719 -10.3435 -8.17118 
-1.20869 19.181 7.34118 
19.676 6.12945 1.77406 
-18.6491 8.15546 9.66306 
7.5159 -16.6346 -1.33037 
13.0885 10.2704 11.0671 
16.6335 8.25795 3.40555 
-25.529 0.216307 0.367024 
22.7461 -4.27947 -9.52985 
-13.5743 13.347 -5.23178 
-3.55229 -1.40973 -3.16403 
-19.0565 -11.239 9.31667 
-6.53098 -16.8367 1.33527 
-12.2045 9.67177 -4.51643 
5.78768 -18.3229 3.90578 
-12.1717 -13.2455 -4.24064 
14.6107 -9.83217 -14.7071 
-19.5018 6.5254 3.81038 
23.7828 -2.61012 -5.72089 
-27.7029 -1.76286 5.07805 
-3.5126 -18.6781 6.60504 
-13.6113 18.901 -1.25143 
21.9135 -10.6567 -4.07722 
-22.5014 -3.21285 -4.61702 
16.7838 -9.91395 -14.3759 
-5.89192 21.6 4.22714 
8.4151 3.74972 -3.55179 
-20.7747 -11.6158 5.45321 
-7.49379 -3.65557 -3.74103 
-6.81481 10.7404 -5.9641 
8.21265 -17.7846 9.58715 
-21.8813 -11.0632 -0.30673 
18.6691 -10.6646 3.57858 
-14.5664 15.1358 -0.578262 
22.3451 -8.95846 -6.93315 
-25.1088 -1.61718 11.7279 
4.06181 -15.9898 -0.840492 
-0.459616 14.5938 -8.5192 
5.8172 14.8641 12.517 
-13.6275 -4.45855 -4.17646 
12.6991 -8.4892 -11.814 
-13.9837 16.8836 -0.935116 
7.7062 -2.3111 -1.89164 
-12.2294 -15.8848 1.70853 
-4.82668 -7.21031 -4.25691 
-3.41915 6.62382 -4.58933 
15.4743 -7.44443 11.4334 
-12.1673 -7.57962 -5.20667 
17.4475 -5.65018 -11.8652 
-13.5411 19.0733 7.68481 
15.5776 7.94503 -7.92059 
-23.249 -9.78838 0.603109 
2.58983 -18.8485 6.19196 
3.83734 18.4725 -0.260126 
16.0345 8.80796 -0.89623 
-18.6724 6.74819 1.64418 
15.5809 -16.8792 -1.97796 
4.15451 18.0713 5.18409 
9.17321 15.2503 0.364603 
-25.6714 -6.35124 4.68437 
3.21812 -7.32141 -1.82799 
-1.78127 9.77316 -6.08996 
18.2838 1.36656 9.39204 
-10.7559 -16.5996 3.66195 
16.9394 -15.8806 -5.5756 
-2.61342 20.0198 5.92734 
19.0417 6.41512 -0.0525695 
-21.0047 5.28941 4.05798 
10.9651 -10.3292 -9.22419 
4.82746 16.5797 -4.66735 
12.3896 11.8515 5.09035 
-16.1685 -13.5738 -2.15344 
23.0023 1.83807 -5.38281 
-6.8889 17.7366 -8.1644 
4.0098 -1.09767 -1.8521 
-17.1923 -12.1716 10.478 
-1.01005 -14.7714 -1.90899 
-10.3915 8.94503 -4.62484 
14.8298 -15.6624 4.26108 
-10.0156 -4.36877 -4.04004 
17.0473 1.51316 -10.5455 
-15.4127 13.8639 11.1835 
22.0012 3.39655 -0.125761 
-26.2303 2.34767 3.62437 
0.380296 -18.9147 11.5301 
-5.03797 21.8432 -4.9693 
22.7304 -2.77092 -0.0364845 
-20.7357 1.53511 -2.62392 
15.1735 -16.4988 -6.36804 
-3.63048 21.6355 0.922386 
5.38804 11.2734 -7.04158 
-16.2994 -14.6227 3.37935 
0.646157 2.76447 -3.28785 
-6.93351 19.8241 -7.44824 
14.795 -10.6492 9.91933 
-12.1437 -15.132 -0.465494 
20.2846 -10.7965 0.701557 
-14.7769 19.6054 3.93291 
22.4521 -4.93539 -0.180366 
-23.0207 5.1287 11.6302 
3.93253 -18.2275 3.09216 
1.21208 15.4753 -8.401 
8.89872 12.5216 13.2903 
-11.1278 3.08479 -3.39471 
10.6405 -7.1384 -6.37342 
-11.1204 22.369 2.32198 
10.214 2.50523 -3.94439 
-11.369 -16.305 5.63991 
0.140113 -10.1054 -3.34944 
2.61343 3.79662 -3.37983 
19.0109 -5.45942 6.49407 
-0.403009 -7.53433 -3.06841 
15.423 -3.3137 -10.1345 
-9.34534 20.6708 7.20122 
20.3645 4.10655 -7.24542 
-22.5592 0.12477 -2.57467 
10.5878 -15.4042 11.711 
7.40781 16.0552 6.35824 
18.5502 5.63739 7.81096 
-16.6068 11.269 3.29723 
19.934 -14.0393 -3.71101 
4.59806 17.2343 7.47347 
13.1944 11.2345 -2.50392 
-25.7161 -3.96844 7.98761 
8.62856 -6.18914 -2.72204 
13.763 7.02142 -8.34948 
17.7403 -2.81869 9.9998 
-6.32905 -17.4716 11.5189 
17.7887 -12.9618 -12.0472 
-3.98554 18.3169 11.5445 
21.0096 3.22232 3.2436 
-19.5679 7.09885 7.47387 
8.2215 -10.0117 -3.82048 
9.93344 14.6332 3.87916 
14.9177 9.49477 2.68184 
-25.1955 1.88207 2.00204 
19.1094 4.22021 -9.46988 
-13.0572 17.1785 -4.87227 
-3.29134 4.55885 -3.95334 
-20.6606 -8.59849 11.7669 
-4.74308 -17.459 2.17953 
-8.6345 7.9381 -4.58362 
11.7517 -17.3065 4.29103 
-6.72763 -13.8923 -4.26877 
12.2708 -2.96652 -7.4606 
-17.372 9.82169 9.70822 
23.6587 -0.352563 -5.58149 
-27.1365 0.527268 8.83915 
-1.82585 -18.9474 8.14125 
-8.27522 22.763 -0.233645 
22.1131 -7.77069 -1.2019 
-14.7952 -0.772053 -3.4366 
16.5879 -15.7261 -7.80951 
-0.0635085 19.8951 3.4141 
11.4257 9.17099 -6.97366 
-20.3835 -10.9028 7.69305 
-1.70577 -2.36245 -2.90747 
-8.20336 12.0872 -6.35444 
13.2821 -15.2744 7.16419 
-17.9114 -13.8746 1.40129 
19.7837 -6.28357 4.63687 
-15.6576 13.842 6.10336 
23.1532 -4.03044 -1.94358 
-26.223 1.39058 11.3906 
5.39805 -12.7828 -2.88526 
3.32897 17.7459 -4.08281 
10.9701 11.6357 11.3042 
-10.962 0.901195 -3.32273 
11.7153 3.1871 -5.48073 
-14.3101 20.22 1.82314 
10.1188 0.226381 -3.41648 
-13.218 -14.4843 10.5285 
-3.115 -10.4714 -4.69419 
4.28452 6.41821 -4.38664 
15.5629 -6.83833 11.7297 
-1.89482 -4.48128 -3.09095 
20.7463 -9.83615 -10.1552 
-11.0328 18.2613 11.1835 
14.8622 9.20329 -6.06505 
-20.4243 -3.89611 -4.78553 
6.11123 -18.2364 11.6797 
5.59597 17.767 1.20141 
18.1102 7.09405 6.70052 
-16.6874 10.3333 -0.628468 
17.0063 -15.8689 0.949562 
5.08501 16.3405 9.50926 
12.395 12.1281 2.65604 
-24.4978 -4.79249 9.47379 
7.05199 -6.91622 -1.81587 
3.866 8.18832 -5.29196 
17.3036 2.98466 11.0542 
-6.13911 -18.0462 7.83382 
18.6156 -10.8611 -12.6597 
0.826825 18.6781 7.09125 
20.1597 5.31496 3.59628 
-22.9143 5.11837 7.89638 
10.672 -8.83014 -7.60352 
7.14952 16.9666 2.30215 
16.0632 7.81529 10.6335 
-15.8198 -7.57334 -5.4255 
19.0838 6.00906 -3.87142 
-8.35951 22.7154 -2.85602 
8.17935 -0.280998 -2.30656 
-16.1232 -12.4779 11.6734 
0.520899 -18.2038 3.11199 
-1.62865 7.66064 -5.05135 
16.3395 -13.7463 4.55216 
-9.35158 -2.54511 -3.63326 
16.3639 -0.321911 -10.152 
-13.4008 16.6741 11.5947 
21.8334 2.40685 1.55335 
-25.7169 4.07281 9.57442 
2.46344 -18.8774 11.7631 
-1.70055 20.7049 -4.25709 
20.2092 -0.0252177 5.71021 
-15.4071 5.34925 -3.156 
9.85671 -16.483 -4.40257 
-0.0990909 20.2855 -0.760334 
8.01094 14.917 -3.63712 
-17.8071 -12.5512 8.25387 
5.31973 -5.77507 -1.44616 
-1.74709 18.4734 -7.8321 
13.3295 -11.5362 11.4753 
-8.4277 -15.0273 -1.19057 
20.4634 -2.18092 5.0685 
-8.51446 21.6093 5.34643 
22.8162 2.23387 -1.92142 
-20.843 6.3392 11.7229 
5.8309 -18.5431 9.60997 
1.62919 17.199 -7.26852 
10.6896 11.2979 13.5022 
-7.21449 4.60993 -3.80818 
15.6615 4.27372 -10.1069 
-8.91727 19.4636 9.47449 
13.5406 8.738 -7.40483 
-10.3523 -15.7278 11.6914 
0.366392 -12.2384 -3.40774 
6.70353 2.13258 -2.59677 
16.5406 -4.63236 11.385 
3.82071 -3.18877 -1.65372 
19.1783 -3.52324 -10.6801 
-5.48848 18.5267 11.4608 
17.4531 6.8093 -8.07779 
-22.3392 2.90267 0.64451 
11.8156 -13.9626 11.5037 
11.3068 12.2196 8.03325 
16.464 6.34943 11.3781 
-15.6886 13.5042 8.20603 
18.6091 -14.9939 -0.262757 
2.59951 16.8908 11.1685 
14.9518 9.68369 0.558292 
-22.0117 -6.92637 11.7101 
10.5194 -2.98127 -4.03689 
3.96614 13.6609 -7.98188 
17.2545 3.48229 11.1234 
-3.14896 -18.5068 11.0962 
22.5763 -8.84237 -5.00985 
-0.199016 17.7918 11.0692 
19.2492 6.03473 5.38973 
-17.0163 10.3864 11.7264 
9.57156 -17.7066 1.35435 
14.7388 9.56761 7.61427 
16.7091 8.17686 7.86905 
